ncols        75
nrows        100
xllcorner    -75.750138889000
yllcorner    5.750138889000
cellsize     0.010000000000
 2040.0 2122 2662 3125 2991 3015 3147 3160 3007 2729 2655 2615 2649 2662 2616 2617 2665 2617 2632 2648 2656 2687 2746 2777 2731 2682 2783 2685 2667 2670 2595 2612 2594 2599 2526 2573 2413 2455 2523 2293 2120 2057 2081 2057 2166 1920 1869 1808 1812 1826 1793 1803 1821 1773 1670 1449 1302 1153 1075 1007 1005 950 987 1056 1075 993 984 1192 1468 1530 1383 1450 1318 1332 1385
 1999 2430 2747 3087 3016 3072 3129 3202 2896 2707 2644 2596 2660 2697 2567 2605 2645 2619 2595 2688 2655 2658 2705 2746 2714 2723 2703 2657 2634 2612 2560 2618 2578 2535 2558 2560 2490 2474 2534 2321 2250 2080 2070 2177 2112 1873 1840 1839 1797 1770 1816 1828 1818 1884 1860 1694 1402 1301 1112 1134 1055 952 940 998 1122 1262 1048 1092 1501 1650 1609 1607 1524 1332 1291
 1999 2185 2605 3113 3079 3044 3155 3005 2742 2659 2734 2627 2579 2674 2568 2595 2597 2627 2620 2651 2679 2650 2661 2671 2730 2692 2689 2743 2669 2585 2589 2584 2586 2581 2583 2550 2536 2548 2456 2362 2488 2248 2325 2326 2039 1858 1785 1773 1789 1789 1840 1840 1854 1877 1852 1635 1472 1380 1188 1064 1144 1059 966 965 1012 1164 1228 1354 1381 1545 1765 1853 1716 1526 1345
 1912 2393 2729 3067 2989 2983 2953 2988 2826 2766 2698 2648 2612 2545 2544 2562 2602 2563 2598 2572 2653 2646 2678 2643 2665 2677 2686 2659 2651 2639 2629 2628 2574 2586 2568 2555 2574 2426 2366 2221 2367 2458 2298 2134 1987 1800 1828 1795 1819 1827 1785 1836 1822 1867 1868 1923 1771 1617 1410 1390 1338 1331 1028 973 962 1046 1246 1423 1596 1479 1495 1675 1606 1581 1396
 2298 2469 2791 3241 3052 2961 3044 3185 3068 2916 2759 2685 2558 2547 2530 2587 2550 2599 2587 2533 2569 2580 2596 2635 2671 2630 2599 2691 2648 2620 2654 2643 2577 2563 2617 2590 2584 2522 2514 2259 2132 2218 2308 2132 1990 1842 1857 1818 1804 1822 1802 1808 1834 1793 1742 1778 1783 1803 1628 1439 1379 1176 954 949 946 961 1065 1107 1250 1378 1430 1407 1382 1407 1459
 1980 2275 2478 3128 3030 2959 3042 3298 3211 3187 3020 2690 2669 2590 2536 2574 2531 2541 2558 2608 2501 2583 2565 2596 2624 2612 2579 2643 2634 2593 2591 2622 2635 2608 2561 2642 2793 2709 2602 2383 2346 2253 2134 2266 2221 2005 1931 2055 1796 1866 1873 1811 1831 1873 1791 1691 1544 1744 1521 1517 1370 1099 950 1015 1046 976 970 1002 1207 1465 1468 1431 1409 1240 1172
 1718 2023 2573 3098 2986 2977 3164 3265 3184 3018 3088 2740 2717 2551 2547 2539 2498 2502 2590 2526 2526 2542 2554 2522 2564 2595 2568 2582 2589 2577 2571 2568 2599 2586 2636 2686 2811 2658 2473 2451 2318 2143 2195 2062 1957 2048 2018 1886 1793 1934 1912 1918 1823 1845 1847 1898 1358 1369 1332 1246 1133 1067 966 1090 1115 1079 1005 1004 1195 1358 1431 1448 1458 1399 1439
 1813 2410 2502 3128 3042 2928 3028 3250 3259 3018 2980 2812 2588 2581 2525 2506 2495 2557 2521 2493 2466 2460 2514 2545 2547 2595 2584 2536 2590 2516 2562 2597 2601 2603 2694 2674 2759 2529 2385 2425 2421 2429 2393 2297 2139 2017 1994 1939 1846 1956 2215 2001 1865 1839 1826 1790 1451 1117 1053 1149 1079 1052 975 1040 1105 1344 1138 1125 1260 1522 1471 1476 1448 1470 1395
 1915 2106 2591 3137 2904 2831 2923 3186 3219 2954 2764 2732 2572 2515 2515 2501 2504 2515 2479 2503 2519 2531 2452 2521 2562 2511 2550 2573 2544 2568 2551 2530 2570 2553 2636 2597 2624 2529 2542 2492 2484 2520 2440 2305 2321 2118 2132 2040 1949 2047 2118 1897 1927 1874 1717 1608 1462 1196 1075 1021 1061 1022 1012 1013 1084 1110 1263 1095 1328 1374 1522 1504 1472 1421 1369
 2185 2704 2909 3131 2922 2801 2956 3186 3032 2794 2799 2928 2748 2582 2543 2540 2549 2502 2531 2514 2468 2448 2481 2540 2550 2559 2575 2549 2564 2566 2554 2487 2540 2605 2641 2524 2504 2563 2493 2459 2513 2511 2394 2337 2240 2197 2181 2089 1924 2098 2027 2110 2078 1954 1650 1505 1398 1249 1130 1062 998 995 996 987 996 1023 1358 1216 1189 1430 1530 1449 1386 1429 1385
 2370 2709 2851 3171 2931 2686 2828 3117 2998 2952 3028 2987 2659 2627 2562 2520 2537 2524 2541 2485 2501 2428 2497 2515 2544 2550 2561 2540 2567 2534 2537 2495 2532 2551 2483 2568 2607 2499 2478 2412 2371 2334 2155 2156 2204 2319 2205 2184 2086 1991 2004 2113 2045 1917 1658 1621 1313 1155 1093 1054 1111 1038 1040 1044 1087 1224 1282 1424 1482 1445 1437 1424 1395 1368 1389
 2168 2150 2662 3074 2935 2775 2636 2943 2898 3030 3150 3009 2668 2581 2599 2523 2525 2514 2544 2494 2501 2470 2451 2444 2468 2513 2513 2518 2544 2540 2511 2498 2522 2426 2492 2422 2456 2428 2392 2383 2470 2526 2460 2339 2329 2255 2220 2216 2077 2085 2019 1979 1998 1962 1609 1417 1318 1198 1139 1077 1222 1327 1197 1274 1361 1459 1411 1518 1481 1422 1417 1372 1490 1515 1469
 1760 2004 2339 2737 2991 2725 2619 2713 2776 2961 3104 3059 2746 2657 2570 2473 2545 2547 2507 2541 2490 2465 2465 2456 2447 2502 2507 2477 2506 2492 2501 2488 2470 2467 2479 2519 2430 2406 2408 2424 2461 2471 2457 2420 2354 2237 2263 2104 2138 2143 2119 1784 1703 1710 1581 1532 1373 1192 1097 1064 1183 1234 1475 1534 1520 1468 1473 1457 1410 1429 1430 1513 1452 1417 1460
 1627 1919 2163 2726 2792 2812 2694 2583 2709 2805 2936 3094 2837 2684 2593 2483 2406 2490 2485 2455 2475 2486 2457 2461 2439 2411 2437 2454 2500 2481 2502 2452 2530 2523 2523 2488 2471 2425 2444 2437 2477 2564 2492 2453 2305 2189 2187 2156 2134 1991 1978 1734 1512 1498 1451 1328 1200 1175 1071 1015 1078 1333 1511 1597 1587 1587 1532 1509 1442 1425 1476 1497 1459 1445 1396
 1846 2167 2293 2252 2280 2745 2614 2528 2503 2730 2730 2892 2920 2711 2691 2537 2393 2448 2427 2400 2455 2455 2461 2433 2383 2412 2503 2471 2459 2458 2483 2461 2521 2473 2493 2501 2548 2465 2465 2471 2430 2400 2390 2412 2294 2146 2159 2074 1961 2003 1846 1919 1667 1358 1262 1309 1239 1316 1086 1095 1193 1088 1231 1407 1578 1489 1487 1487 1485 1518 1502 1519 1450 1414 1403
 1973 1942 2143 1881 2090 2709 2681 2585 2507 2533 2597 2756 2811 2865 2716 2477 2420 2446 2441 2488 2387 2382 2412 2338 2430 2458 2439 2502 2458 2500 2473 2514 2500 2489 2470 2516 2497 2526 2494 2448 2423 2335 2138 2149 1905 1847 1804 1675 1586 1470 1551 1666 1445 1352 1216 1194 1181 1245 1181 1144 1257 1332 1179 1371 1558 1507 1489 1507 1562 1547 1517 1468 1456 1470 1383
 1884 1620 1795 1773 2128 2726 2610 2600 2561 2490 2497 2684 2713 2785 2798 2630 2462 2367 2383 2401 2414 2357 2404 2397 2430 2454 2428 2469 2442 2498 2482 2498 2522 2621 2505 2491 2536 2542 2613 2509 2354 2005 1784 1771 1658 1527 1441 1396 1278 1207 1223 1408 1487 1200 1085 1130 1107 1038 1039 1109 1224 1483 1485 1392 1563 1491 1459 1469 1442 1523 1506 1493 1438 1443 1469
 1615 1532 1393 1904 1918 2473 2631 2729 2607 2534 2505 2575 2848 2817 2832 2711 2582 2428 2383 2337 2332 2329 2323 2367 2321 2416 2432 2376 2498 2459 2480 2505 2512 2555 2482 2440 2408 2490 2660 2528 2364 1917 1792 1591 1545 1494 1251 1112 1095 1063 1062 1159 1281 1158 1099 1067 1134 1079 1125 1221 1478 1712 1721 1740 1669 1517 1555 1534 1469 1438 1408 1439 1455 1480 1465
 1317 1217 1430 1608 2157 2343 2171 2602 2621 2672 2514 2486 2610 2693 2915 2886 2715 2472 2424 2358 2447 2388 2327 2316 2277 2345 2430 2421 2457 2473 2463 2480 2502 2559 2395 2351 2311 2427 2470 2378 2276 2239 2140 1917 1679 1457 1119 1229 1375 1204 1114 1052 1115 1199 1053 1135 1180 1366 1226 1338 1412 1548 1738 1686 1685 1656 1610 1518 1486 1343 1300 1407 1442 1458 1393
 1187 1149 1609 1617 1593 1651 2191 2668 2688 2657 2626 2531 2475 2557 2741 2795 2762 2542 2414 2388 2396 2372 2407 2367 2334 2274 2348 2329 2323 2339 2495 2506 2533 2568 2305 2290 2193 2114 2085 2042 1977 1903 1834 1698 1425 1410 1460 1582 1562 1608 1229 1124 1103 1075 1051 1106 1083 1156 1278 1511 1579 1674 1655 1524 1664 1555 1504 1594 1478 1339 1029 1153 1296 1256 1086
 919 1352 1258 1475 1615 1729 2024 2510 2732 2741 2732 2636 2484 2436 2649 2746 2851 2745 2476 2393 2457 2425 2408 2376 2397 2310 2297 2279 2309 2355 2432 2622 2636 2456 2159 2091 2044 1905 1808 1793 1687 1675 1629 1665 1724 1808 1827 1781 1624 1308 1188 1131 1109 1054 1215 1094 1148 1142 1169 1370 1476 1787 1570 1294 1320 1277 1178 1241 1264 1146 1062 919 1098 921 846
 894 1050 1276 1664 1941 1968 2105 2107 2458 2839 2784 2757 2562 2523 2479 2603 2684 2666 2754 2454 2377 2421 2535 2505 2484 2416 2350 2352 2326 2332 2404 2600 2546 2327 2131 2104 2126 2156 1953 2082 1987 1873 1858 1840 1903 1947 1849 1756 1546 1192 1086 1076 1202 1251 1297 1314 1333 1464 1476 1494 1569 1467 1275 1133 1140 1121 1057 1038 983 904 873 966 974 1027 958
 787 950 1389 1477 1649 1587 1670 1929 2321 2699 2871 2834 2631 2540 2438 2458 2556 2555 2640 2725 2404 2308 2424 2469 2503 2446 2412 2326 2314 2338 2356 2492 2393 2237 2197 2084 2174 2201 2139 2266 2190 2135 2083 2089 1997 1696 1545 1460 1453 1130 1121 1251 1336 1447 1640 1627 1606 1601 1755 1787 1754 1898 1600 1358 1486 1252 1330 1318 1292 1222 1185 1220 1190 1193 1091
 693 927 1142 1190 1329 1656 1870 1987 2142 2539 2883 2664 2625 2726 2557 2443 2408 2589 2557 2510 2633 2350 2287 2328 2380 2312 2292 2286 2275 2271 2271 2353 2340 2208 2181 2117 2208 2242 2265 2225 2239 2276 2420 2411 2179 1919 1645 1432 1195 1152 1231 1369 1588 1566 1744 1880 1843 2059 1995 1921 1967 1805 1726 1821 1485 1275 1440 1635 1656 1485 1470 1423 1352 1414 1417
 712 940 1153 1524 1729 1818 2118 2214 2624 2919 2970 2852 2731 2642 2596 2517 2445 2403 2463 2390 2315 2283 2271 2273 2313 2322 2331 2305 2289 2307 2244 2239 2260 2176 2153 2240 2221 2312 2296 2212 2260 2287 2485 2446 2270 1991 1718 1560 1150 1241 1364 1596 1658 1835 1930 2075 2022 1935 1991 1963 1921 1939 1850 1634 1372 1565 1723 1684 1632 1556 1628 1576 1495 1490 1414
 792 895 1040 1171 1630 1767 1692 2244 2208 2392 3028 2976 2654 2576 2503 2468 2456 2486 2439 2571 2517 2561 2365 2382 2400 2303 2433 2337 2279 2310 2310 2289 2270 2165 2168 2203 2219 2275 2262 2310 2277 2281 2399 1959 1772 1706 1475 1305 1156 1384 1550 1622 1773 1983 2011 2039 1961 2022 2000 2018 2022 1914 1608 1543 1674 1713 1686 1633 1571 1594 1634 1555 1475 1513 1356
 699 660 1000 1369 1471 1361 1719 1847 1804 2210 2620 2786 2773 2656 2563 2564 2535 2451 2427 2511 2582 2651 2608 2378 2406 2307 2398 2302 2271 2349 2344 2333 2294 2305 2247 2159 2193 2192 2353 2325 2212 2173 2296 2011 1799 1507 1349 1258 1297 1420 1568 1744 2049 2047 2019 2042 2052 1999 2057 1980 1926 1897 1848 1824 1863 1785 1621 1606 1634 1624 1569 1552 1424 1426 1429
 584 688 812 1151 1158 1320 1436 1696 2206 2350 2627 2591 2713 2781 2639 2561 2533 2458 2434 2480 2520 2504 2453 2361 2335 2339 2390 2413 2303 2380 2440 2426 2359 2395 2428 2288 2295 2241 2267 2148 2092 2021 1901 1760 1555 1329 1248 1294 1344 1507 1720 2034 2066 2049 2009 1999 1971 1985 1959 1950 1999 2009 1962 1818 1735 1750 1750 1643 1697 1585 1533 1473 1486 1476 1434
 651 782 885 958 1138 1268 1640 1837 2037 2594 2536 2566 2562 2611 2722 2655 2554 2486 2506 2469 2506 2649 2565 2490 2410 2423 2351 2395 2369 2353 2372 2383 2373 2377 2435 2510 2297 2340 2222 1865 1789 1665 1678 1484 1379 1324 1259 1461 1589 1714 1816 2130 2015 2035 2058 1970 1982 1992 1945 2018 2013 2065 1911 1769 1736 1689 1708 1669 1729 1633 1523 1524 1516 1507 1510
 713 726 783 910 1041 1155 1426 1965 2433 2468 2504 2505 2543 2551 2572 2705 2567 2516 2504 2457 2542 2565 2632 2425 2502 2509 2373 2421 2465 2338 2341 2346 2375 2409 2469 2501 2376 2283 2216 1826 1497 1337 1267 1294 1289 1326 1427 1643 1776 1958 2110 2250 2070 1996 1980 1943 1965 1905 1934 1925 1916 1891 1844 1831 1767 1684 1549 1625 1594 1649 1603 1558 1584 1380 1424
 811 672 715 760 1162 1121 1339 1646 2111 2400 2495 2516 2496 2513 2566 2602 2613 2501 2506 2506 2496 2551 2511 2512 2564 2630 2481 2434 2402 2377 2374 2412 2380 2424 2388 2441 2548 2285 2006 1785 1525 1278 1298 1365 1541 1644 1664 1709 1951 2013 2083 2080 2098 2011 1894 1841 1876 1846 1844 1892 1895 1749 1799 1797 1747 1802 1930 1764 1458 1470 1608 1545 1481 1332 1306
 1013 780 780 882 1059 1329 1761 1949 2347 2340 2485 2499 2539 2524 2549 2523 2577 2500 2601 2512 2512 2520 2502 2498 2534 2647 2655 2486 2406 2410 2380 2395 2099 2053 2177 2110 2004 1820 1659 1529 1297 1317 1369 1505 1581 1702 1761 2127 2246 2277 2304 2299 2246 2129 1946 1931 1872 1901 1804 1832 1795 1644 1772 1907 1780 1878 1823 1902 1638 1425 1307 1364 1486 1447 1321
 1182 1132 881 941 1365 1593 1867 2122 2414 2467 2411 2490 2509 2524 2501 2566 2588 2634 2647 2565 2539 2584 2516 2501 2535 2531 2597 2523 2428 2220 2252 2069 1773 1677 1731 1608 1627 1630 1494 1311 1336 1584 1578 1711 1698 1804 1985 2233 2279 2276 2218 2279 2218 2262 2019 1828 1847 1812 1682 1813 1839 1656 1808 1927 1675 1717 1918 1813 1766 1562 1282 1247 1312 1367 1333
 1314 1157 877 972 1164 1628 1889 2091 2441 2531 2518 2515 2554 2533 2527 2518 2493 2604 2646 2569 2582 2666 2548 2549 2535 2404 2323 2416 2146 1919 1788 1713 1523 1424 1347 1344 1331 1309 1326 1555 1493 1789 1931 1946 1887 2078 2211 2216 2164 2108 2131 2176 2176 2177 2123 1945 1749 1752 1687 1561 1604 1577 1866 1701 1620 1676 1927 1885 1664 1416 1256 1254 1265 1345 1277
 1183 1334 1015 1070 1173 1466 1732 1960 2519 2517 2508 2554 2548 2573 2544 2557 2514 2588 2755 2601 2642 2688 2623 2512 2058 2029 1985 2006 1867 1914 1556 1433 1336 1332 1364 1618 1570 1501 1550 1851 1943 1977 2007 2246 2333 2363 2333 2188 1991 1914 1942 1962 2141 2121 2032 1961 1761 1805 1797 1684 1625 1632 1525 1485 1498 1715 1779 1567 1303 1347 1291 1272 1304 1288 1314
 900 1209 1092 1257 1464 1756 1851 2038 2479 2553 2568 2546 2543 2526 2548 2544 2494 2535 2688 2694 2595 2839 2687 2368 1924 1721 1677 1682 1681 1711 1371 1334 1337 1507 1516 1748 1832 1685 1787 1962 1997 2342 2448 2431 2397 2327 2331 2235 1939 1839 1808 1951 2008 1970 1988 1779 1755 1672 1903 1787 1660 1753 1711 1582 1522 1522 1427 1522 1343 1359 1439 1342 1287 1252 1295
 1398 1086 1319 1275 1496 1709 2015 2415 2857 2658 2601 2568 2550 2486 2483 2481 2487 2420 2458 2818 2656 2533 2389 2325 1822 1584 1489 1435 1388 1355 1339 1344 1416 1606 1869 1942 2221 2106 2074 1953 2092 2209 2356 2364 2403 2391 2191 2086 1987 1959 1840 1855 1815 1848 1692 1690 1818 1697 1776 1764 1756 1615 1647 1619 1643 1643 1626 1612 1417 1298 1297 1282 1284 1246 1246
 1720 1280 1165 1535 1729 1864 2123 2672 3007 2844 2598 2540 2487 2486 2454 2401 1996 1891 2213 2650 2300 2249 2017 1955 1705 1497 1409 1362 1377 1446 1427 1451 1641 1882 2242 2303 2243 2206 2203 2170 2219 2254 2258 2358 2431 2350 2324 2220 2173 2081 1984 1915 1911 1928 1873 1835 1855 1826 1710 1618 1631 1671 1650 1712 1772 1706 1621 1503 1392 1363 1246 1246 1295 1246 1247
 1550 1280 1365 1418 1552 1852 2320 2561 3041 2896 2655 2563 2530 2482 2442 2334 1872 1692 1977 2205 1966 1974 1980 1695 1580 1449 1525 1600 1490 1598 1481 1484 1912 2208 2265 2256 2281 2279 2229 2197 2248 2246 2268 2281 2397 2345 2337 2300 2237 2203 2144 2010 2005 2054 2107 2017 1987 1945 1737 1618 1728 1695 1683 1805 1781 1461 1430 1334 1271 1295 1370 1404 1298 1341 1285
 1558 1479 1722 1246 1646 2001 2284 2674 2904 3073 2702 2571 2552 2504 2481 2211 1826 1593 1545 1676 1726 1650 1590 1509 1477 1428 1651 1904 1789 1726 1727 1706 2047 2248 2254 2235 2239 2220 2219 2213 2239 2274 2306 2268 2243 2386 2324 2347 2306 2287 2102 2089 2084 2043 2035 2000 1988 1976 1833 1668 1795 1817 1894 1658 1658 1691 1564 1415 1363 1476 1401 1200 1148 1105 1142
 1523 1648 1758 1400 1624 1874 2073 2075 2410 3012 2897 2748 2635 2483 2486 2249 1750 1497 1464 1496 1468 1469 1418 1414 1453 1596 1606 1910 2145 1996 2072 2160 2284 2374 2273 2241 2209 2243 2227 2262 2240 2229 2267 2208 2208 2231 2321 2354 2320 2275 2096 2069 2095 2055 2003 1998 2039 1924 1886 1718 1830 1922 1746 1656 1440 1528 1602 1576 1563 1445 1327 1293 1205 1130 1029
 1422 1712 1845 1516 1721 1728 1965 2178 2465 3095 3059 2713 2543 2464 2432 2136 1749 1595 1502 1431 1419 1425 1499 1591 1507 1885 1859 1889 2143 2522 2534 2375 2383 2283 2270 2259 2269 2232 2255 2264 2239 2234 2213 2248 2209 2153 2221 2285 2338 2297 2300 2054 2010 2080 2041 1948 1882 1888 1864 1820 1845 1965 1822 1710 1520 1383 1268 1305 1407 1429 1278 1129 1180 1142 1102
 1603 1793 1857 1796 2089 1984 2028 2525 2547 2595 2866 2672 2605 2530 2501 2245 1965 1661 1501 1424 1506 1554 1692 1913 1670 1866 2363 2298 2275 2358 2515 2448 2454 2454 2299 2264 2274 2316 2306 2253 2275 2231 2183 2186 2200 2189 2200 2142 2267 2289 2285 2048 1936 1965 1985 2005 1928 1860 1841 1833 1875 1964 1840 1606 1579 1409 1228 1246 1541 1394 1342 1241 1203 1116 1028
 1690 1629 2174 1860 1939 2314 2114 2392 2495 2289 2471 2634 2785 2724 2515 2141 1897 1687 1534 1436 1575 1853 1909 2224 1844 2001 2325 2385 2256 2279 2401 2476 2483 2429 2299 2369 2339 2387 2369 2275 2306 2300 2254 2269 2279 2265 2170 2100 2055 2039 2087 2133 1923 1888 2003 1881 1892 1881 1881 1853 1852 1882 2012 1852 1661 1288 1117 1129 1306 1420 1311 1435 1443 1358 1095
 1813 1961 2336 1996 1916 2474 2320 2343 2314 2107 2228 2461 2525 2480 2371 2169 1893 1667 1543 1454 1611 1984 2142 2476 2196 2434 2427 2257 2183 2174 2281 2347 2422 2388 2298 2440 2311 2323 2347 2325 2180 2260 2238 2303 2243 2201 2165 2071 2076 1990 1962 1994 1887 1881 1898 2041 1881 1881 1881 1900 1842 1846 1882 1989 1675 1522 1258 1058 1188 1349 1222 1179 1184 1137 977
 1731 2221 2254 2143 2048 2507 2601 2515 2298 2099 2063 2249 2238 2148 2040 1911 1739 1599 1487 1527 1766 2028 2404 2449 2366 2431 2488 2428 2264 2177 2182 2338 2478 2387 2341 2425 2306 2358 2228 2300 2224 2200 2235 2244 2188 2071 2049 2066 2087 2070 2041 1915 1912 1882 1881 1989 1971 1881 1881 1899 1860 1858 1858 1890 1643 1450 1290 1187 1039 1063 986 990 990 1014 984
 1921 2086 2382 2403 2128 2637 2896 2786 2372 2104 1944 1986 1963 1957 1776 1728 1631 1512 1470 1576 1763 2194 2527 2471 2457 2407 2493 2424 2297 2245 2162 2253 2492 2434 2362 2396 2262 2241 2209 2188 2190 2154 2151 2146 2162 2200 2131 2094 2021 2004 1991 1905 1881 1881 1881 1881 1881 1881 1881 1881 1898 1929 1813 1675 1458 1361 1305 1106 1053 1167 1157 1000 1152 1201 1130
 1909 2104 2403 2399 2231 2824 2923 2621 2279 2037 1891 1873 1751 1678 1581 1563 1534 1476 1459 1568 1762 2099 2570 2477 2440 2419 2470 2461 2389 2258 2162 2184 2316 2409 2360 2407 2228 2171 2184 2161 2183 2178 2179 2182 2100 2091 2130 2131 2059 2008 2004 2004 1908 1892 1906 1891 1892 1881 1881 1881 1869 1770 1540 1385 1350 1213 1221 1384 1221 1257 1135 1056 1225 1425 1345
 1806 2122 2606 2556 2556 2484 2582 2716 2320 2224 2180 1865 1714 1617 1529 1502 1533 1463 1477 1568 1745 2067 2488 2499 2440 2449 2470 2434 2377 2302 2158 2143 2190 2264 2378 2406 2243 2188 2172 2165 2199 2157 2189 2171 2063 2069 2080 2059 2088 2121 2066 2053 2003 1902 1888 1881 1881 1881 1881 1881 1916 1710 1595 1502 1287 1304 1305 1650 1351 1390 1259 1064 1070 1179 1390
 1711 2022 2464 2524 2541 2342 2584 2392 2546 2148 2063 1832 1598 1540 1522 1491 1485 1480 1483 1584 1766 2118 2233 2481 2466 2458 2456 2503 2381 2227 2139 2119 2140 2204 2297 2316 2159 2153 2186 2196 2140 2090 2097 2217 2086 2097 2048 2083 2084 2108 2058 1989 1994 1958 1918 1881 1881 1881 1881 1881 1943 1948 1860 1542 1628 1538 1578 1687 1559 1543 1263 1093 1180 1046 1251
 1518 1909 2221 2554 2701 2374 2282 2274 2566 2184 2108 1857 1695 1599 1543 1502 1481 1472 1495 1519 1658 2000 2089 2252 2482 2467 2526 2510 2343 2186 2173 2157 2109 2161 2164 2125 2158 2147 2157 2187 2211 2109 2158 2160 2059 2175 2125 1915 2074 2062 1995 1881 1883 1907 1910 1881 1881 1890 1881 1881 1959 2094 2110 1852 1995 2050 1611 1668 1678 1578 1473 1158 1356 1127 1111
 1749 1644 1986 2450 2638 2344 2221 2311 2267 2186 2019 1858 1676 1588 1555 1508 1485 1483 1598 1624 1639 1675 1906 2163 2527 2594 2487 2522 2394 2240 2185 2144 2172 2100 2130 2107 2142 2142 2125 2114 2104 2135 2097 2114 2172 2169 2092 2069 1946 2015 2031 1926 1881 1881 1898 1881 1891 1889 1876 1881 1904 2025 2161 2302 2279 2207 1930 1747 1815 1745 1544 1288 1485 1389 1315
 1481 1761 2082 1967 2485 2316 2151 2068 2114 2328 2061 1822 1716 1707 1544 1517 1492 1489 1575 1846 1823 1869 1985 2025 2398 2547 2502 2390 2307 2278 2169 2151 2134 2146 2111 2092 2167 2135 2118 2124 2094 2159 2086 2151 2219 2079 2014 2006 1993 1931 1948 1934 1881 1949 1902 1881 1893 1882 1881 1920 1903 2062 2119 2117 2210 2202 2014 1922 1949 1981 1570 1490 1554 1641 1772
 1491 1539 1589 1861 2268 2271 2096 1935 2000 2204 1982 1923 1884 1808 1558 1501 1494 1498 1596 1751 1930 2325 2530 2574 2540 2615 2589 2416 2322 2398 2204 2183 2124 2138 2137 2096 2091 2137 2152 2140 2145 2096 2090 2154 2152 2220 2158 2040 2038 1949 2045 1930 1961 1976 1897 1904 1905 1912 1898 1936 1908 2090 2163 2068 2140 2393 2210 2071 2301 1893 1699 1675 1609 1699 1697
 1505 1406 1633 1917 2316 2273 2084 2066 1880 2140 2093 2096 1912 1744 1608 1539 1502 1516 1585 1755 1934 2355 2653 2633 2584 2552 2612 2474 2406 2427 2210 2178 2130 2158 2121 2138 2085 2140 2150 2132 2120 2126 2068 2155 2184 2200 2092 2106 2139 2232 2172 2020 1914 1972 1934 1900 1906 1904 2011 2057 2116 2164 2199 1982 2052 2175 2237 2094 2111 2179 1740 1440 1309 1306 1194
 1773 1608 1592 1885 2150 2390 2266 2099 1887 1898 1836 1906 2030 1893 1705 1521 1506 1559 1670 1805 2121 2455 2792 2731 2654 2595 2649 2461 2464 2358 2222 2153 2168 2116 2144 2091 2105 2103 2127 2107 2106 2123 2111 2114 2112 2147 2184 2186 2196 2277 2147 2014 1951 1932 1912 1921 1915 1988 2282 2270 2197 2161 2168 2069 1977 2091 2239 2101 2115 2039 1696 1308 1218 1150 1079
 1525 1564 1555 1867 2137 2180 2622 2287 2080 1913 1756 1811 1933 1683 1567 1526 1526 1584 1710 1893 2153 2553 2719 2577 2586 2551 2590 2360 2414 2250 2204 2139 2117 2139 2107 2121 2124 2074 2085 2079 2082 2086 2116 2133 2168 2154 2176 2175 2189 2319 2225 1978 2012 2061 1991 1946 1996 1936 2253 2215 2231 2105 2119 2099 2051 1936 2070 2094 2113 1887 1391 1263 1239 1115 976
 1681 1746 1631 1868 2012 2122 2556 2382 2076 1905 1764 1637 1685 1573 1552 1531 1553 1605 1739 1937 2283 2565 2558 2573 2580 2484 2616 2475 2243 2211 2169 2150 2130 2116 2136 2120 2103 2101 2111 2122 2080 2091 2127 2134 2179 2158 2183 2208 2213 2387 2302 2104 2059 2242 2254 2248 2358 2240 2137 2291 2215 2124 2059 2077 2084 1890 1877 1955 1936 1512 1354 1150 1116 997 1008
 1895 1629 1665 1719 1932 2023 2513 2539 2176 1932 1784 1684 1616 1574 1553 1549 1595 1638 1761 1982 2323 2520 2521 2582 2619 2447 2523 2529 2466 2269 2245 2168 2119 2134 2111 2121 2134 2111 2083 2083 2097 2137 2109 2110 2144 2147 2161 2277 2345 2346 2353 2285 2318 2365 2431 2373 2339 2313 2137 2192 2236 2090 2058 2088 2044 2099 1634 1796 1910 1468 1238 1116 1094 1086 1234
 1650 1310 1442 1690 1776 2045 2567 2618 2229 1923 1773 1667 1592 1574 1609 1665 1675 1699 1852 2131 2460 2502 2543 2564 2523 2462 2435 2548 2375 2182 2167 2161 2115 2102 2140 2110 2123 2099 2104 2086 2143 2137 2136 2120 2100 2126 2148 2212 2221 2420 2322 2339 2255 2408 2337 2313 2222 2335 2225 2066 2166 2036 2038 2087 2032 1944 1613 1680 1610 1359 1219 1176 1372 1409 1383
 1126 1659 1654 1720 1835 2257 2526 2732 2253 2051 1751 1688 1646 1638 1791 1978 1897 1724 1939 2294 2587 2534 2462 2524 2600 2386 2471 2576 2274 2158 2128 2128 2094 2090 2081 2086 2081 2088 2127 2132 2131 2140 2149 2141 2098 2114 2158 2145 2146 2184 2228 2301 2218 2218 2178 2242 2043 2073 2216 2175 1917 2086 2019 1958 2090 1842 1482 1398 1420 1465 1428 1298 1548 1574 1429
 1419 1621 1758 1822 2016 2185 2562 2688 2432 2017 1856 1708 1835 1724 1778 2090 2000 1845 1914 2196 2638 2497 2464 2422 2338 2476 2335 2497 2238 2169 2125 2099 2106 2109 2101 2118 2122 2109 2123 2113 2092 2159 2137 2141 2138 2112 2150 2123 2144 2158 2194 2219 2236 2189 2156 2249 2139 1982 2048 2113 1922 2096 1898 1873 1950 1650 1604 1475 1414 1436 1640 1485 1765 1602 1420
 1336 1378 1519 1662 1866 2075 2265 2692 2410 2251 1979 1745 1802 1955 1977 2101 2139 2129 2152 2111 2569 2575 2438 2392 2311 2228 2384 2434 2231 2149 2102 2111 2121 2118 2113 2120 2124 2112 2128 2137 2124 2131 2158 2153 2132 2131 2186 2218 2150 2151 2143 2219 2301 2278 2181 2044 2192 2065 1947 1969 1801 2033 1912 1825 1747 1821 1838 1669 1307 1354 1554 1905 1715 1622 1583
 1563 1846 2047 1807 1861 1884 2311 2517 2521 2353 1982 1715 1828 2042 2235 2425 2457 2468 2561 2415 2677 2565 2499 2417 2322 2205 2378 2435 2370 2129 2144 2133 2116 2117 2120 2121 2119 2119 2120 2154 2127 2149 2146 2163 2121 2142 2250 2160 2144 2205 2251 2179 2234 2243 2155 2123 2035 1938 1986 1689 1862 1980 1728 1675 1861 1752 1545 1295 1103 1499 1763 1674 1863 1797 1574
 1232 1439 1923 1852 1810 1770 2014 2288 2306 2234 1899 1763 1922 1828 2051 2131 2426 2711 2873 2901 2890 2789 2555 2328 2189 2150 2284 2238 2118 2192 2290 2172 2140 2115 2130 2135 2121 2114 2127 2157 2150 2149 2173 2169 2179 2129 2196 2300 2229 2261 2291 2260 2207 2217 2335 2236 2213 1991 1856 1775 1938 1756 1688 1792 1827 1449 1354 1157 1113 1438 1749 1620 1727 1718 1411
 1330 1568 1960 1789 1647 1809 1943 2217 2161 2039 1881 1742 1797 1914 2031 2400 2592 2830 2725 2694 2621 2727 2484 2234 2196 2187 2162 2131 2194 2314 2288 2144 2173 2143 2136 2109 2115 2137 2131 2116 2167 2124 2150 2156 2241 2336 2203 2304 2312 2271 2247 2214 2094 2135 2191 2142 2142 1962 1511 1682 1633 1712 1866 1940 1714 1429 1292 1064 1088 1405 1736 1404 1697 1715 1392
 1371 1790 1902 1802 1594 1754 2076 1996 1993 1943 1838 1770 1863 2121 1981 2358 2791 2738 2491 2521 2396 2551 2417 2287 2189 2142 2205 2250 2308 2356 2355 2200 2136 2116 2121 2131 2116 2130 2161 2158 2161 2143 2161 2141 2274 2498 2330 2326 2298 2295 2181 2055 2091 2097 2024 2147 1955 1880 1551 1352 1475 1891 2008 1787 1550 1297 1168 1065 1069 1464 1601 1461 1508 1586 1304
 1213 1381 1706 1612 1514 1665 2020 1997 1948 2042 1869 1807 1842 2116 2179 2377 2769 2592 2530 2622 2678 2282 2579 2342 2198 2161 2310 2264 2294 2273 2333 2194 2163 2138 2177 2259 2112 2118 2139 2151 2166 2188 2163 2160 2291 2395 2308 2311 2269 2304 2111 1986 1942 2083 1810 1679 1670 1662 1464 1309 1445 1719 1707 1518 1440 1134 1050 894 1066 1296 1594 1401 1286 1402 1332
 1066 1160 1488 1558 1417 1531 1737 1942 1981 2092 1944 1852 1899 2064 2187 2538 2907 2870 2758 2751 2489 2458 2309 2455 2167 2203 2376 2334 2303 2345 2316 2336 2263 2192 2455 2216 2114 2146 2146 2187 2255 2232 2192 2198 2472 2407 2250 2243 2348 2127 2090 2023 1929 1849 1736 1474 1396 1382 1398 1269 1307 1484 1519 1495 1239 1062 892 821 1108 1144 1534 1586 1434 1275 1291
 1455 1620 1204 1467 1338 1397 1668 1824 1868 1801 1932 1904 1843 1974 2205 2520 2763 2891 2826 2692 2580 2425 2212 2185 2182 2208 2370 2406 2334 2329 2497 2237 2162 2143 2191 2160 2120 2157 2218 2287 2449 2365 2246 2209 2285 2528 2398 2307 2182 2089 1976 1891 1652 1693 1622 1302 1262 1181 1192 1345 1346 1152 1185 1096 1136 1010 867 803 1010 1116 1469 1714 1597 1281 1105
 1827 2082 1839 1647 1301 1344 1478 1627 1723 1846 2069 1974 1925 1965 1995 2346 2558 2996 2715 2613 2556 2464 2241 2258 2337 2247 2259 2320 2293 2361 2358 2166 2144 2130 2121 2136 2143 2363 2289 2372 2712 2542 2476 2301 2337 2434 2452 2341 2231 2126 2080 1816 1506 1393 1334 1242 1178 1109 1121 1221 1373 1111 868 821 796 950 744 858 1003 1157 1266 1556 1649 1362 1245
 1223 1663 1890 1952 1455 1458 1571 1824 1962 1841 2076 1990 1938 1949 2147 2190 2275 2859 2700 2494 2434 2392 2399 2323 2349 2276 2293 2274 2304 2424 2282 2150 2132 2136 2132 2151 2167 2250 2516 2593 2580 2626 2680 2623 2499 2435 2513 2487 2278 2200 2101 1730 1702 1574 1424 1402 1436 1271 1170 1019 1143 1391 989 793 758 912 773 817 1041 1000 1148 1442 1544 1682 1412
 1136 1618 2008 2080 1610 1486 1571 1823 1882 2007 2074 2104 1928 2212 2140 2133 2434 2721 2801 2567 2411 2383 2263 2285 2189 2272 2263 2295 2314 2446 2249 2142 2141 2141 2167 2160 2183 2314 2567 2525 2538 2522 2619 2598 2531 2510 2419 2370 2450 2381 2419 2221 1808 1980 1881 1815 1814 1395 1194 1033 986 1037 852 926 831 792 796 773 846 853 1285 1403 1393 1653 1603
 976 1342 1772 2115 1590 1360 1457 1767 2028 1948 2173 2154 2056 2137 2466 2241 2671 2734 2731 2623 2568 2617 2424 2405 2236 2239 2287 2294 2330 2307 2194 2157 2166 2184 2213 2254 2301 2525 2559 2516 2479 2496 2515 2668 2705 2590 2382 2339 2368 2201 2109 1955 2027 2268 2101 2071 1964 1705 1413 1241 1095 1187 1383 1186 1003 847 871 720 833 949 1171 1332 1252 1436 1305
 796 918 1405 1788 1593 1230 1344 1355 1638 1858 1909 2142 2104 2217 2404 2819 2542 2571 2590 2589 2471 2531 2551 2339 2142 2173 2394 2293 2372 2413 2258 2225 2181 2242 2368 2440 2411 2524 2488 2503 2466 2498 2520 2656 2647 2584 2501 2393 2336 2363 2354 2402 2254 2063 2113 1720 1645 1558 1312 1100 1027 1191 1354 1314 1138 927 820 763 716 970 1172 1247 1062 1184 1237
 835 882 891 1310 1565 1113 1189 1331 1534 1778 1635 1816 2236 2359 2595 2245 2266 2340 2462 2373 2246 2220 2249 2082 2124 2268 2317 2413 2495 2545 2402 2247 2232 2350 2628 2586 2600 2494 2494 2471 2498 2479 2476 2618 2637 2552 2482 2489 2395 2246 2375 2400 2226 2013 1505 1458 1311 1162 1132 1051 1181 849 1125 1265 1383 1255 1067 839 686 811 974 1102 1127 1039 960
 1160 1037 1343 966 1109 1055 1156 1358 1757 1873 1929 2036 2367 2590 2422 2388 2355 2141 2227 2318 2396 2190 2077 1979 2268 2243 2268 2372 2388 2390 2425 2408 2488 2599 2555 2518 2568 2486 2470 2463 2493 2453 2463 2579 2680 2681 2653 2479 2359 2267 2404 2343 2125 1686 1191 973 966 1024 1113 1268 1217 955 819 858 1255 1408 1283 908 789 919 787 875 1297 1131 987
 1169 1191 1272 1354 1291 1180 1163 1237 1752 1879 1804 2035 2514 2606 2427 2385 2232 2229 2085 2079 2134 1983 2131 1951 2020 2071 2300 2348 2398 2459 2437 2420 2485 2561 2461 2485 2504 2476 2483 2465 2472 2479 2460 2470 2602 2748 2689 2593 2414 2369 2407 2218 2044 1778 1257 971 1311 1341 1114 1650 1521 1316 1120 843 1047 1324 1157 1009 771 694 597 770 849 1233 1061
 1290 1320 1394 1517 1434 1434 1372 1276 1455 1666 1753 2063 2183 2463 2331 2142 2050 1836 2218 2091 2146 2037 1953 1873 1928 2129 2218 2214 2278 2492 2573 2421 2496 2546 2352 2505 2528 2509 2462 2473 2477 2501 2442 2468 2504 2702 2555 2514 2388 2431 2391 2121 1690 1444 1181 1140 2006 1793 1444 2008 1812 1429 974 916 1183 1442 1414 1056 939 671 530 653 718 1138 1370
 1667 1413 1477 1636 1742 1629 1543 1373 1525 2008 1827 1810 1989 2360 2263 1907 2157 1805 1855 1950 1897 2050 2056 1996 1716 2017 2144 2014 2044 2251 2461 2352 2418 2360 2225 2581 2583 2447 2432 2456 2431 2570 2576 2471 2465 2596 2598 2583 2391 2440 2240 1819 1298 1145 1232 1730 2153 1615 1410 1433 1409 1218 951 789 998 1430 1325 1282 912 838 743 768 838 953 1128
 1564 1727 1811 1721 2131 1848 1658 1512 1604 1818 1863 1694 1914 1913 2308 1841 2001 1742 1488 1511 1805 2156 2366 2072 1862 1756 1812 1424 1612 2080 2292 2252 2233 2309 2257 2343 2398 2541 2504 2433 2449 2460 2388 2441 2458 2501 2604 2463 2454 2319 2053 1851 1636 1336 1896 2090 1889 1490 1088 1333 1071 843 879 770 938 1094 1020 1150 1231 1058 843 604 629 819 988
 1589 1853 2017 2090 2203 1936 1779 1742 1591 1553 1559 1537 1611 1806 2313 1836 1938 1967 1548 1388 1502 1871 2013 2320 1906 1783 1399 1535 1956 1795 1930 2100 2189 2235 2260 2198 2396 2501 2417 2356 2372 2405 2445 2556 2460 2518 2671 2502 2387 2328 1861 1299 1221 1349 1523 2138 1586 1186 991 998 865 757 771 702 566 638 815 1104 951 562 528 537 754 476 821
 1765 1775 1991 2028 1937 1878 1882 1987 1660 1430 1338 1340 1393 1788 1918 1718 1743 1992 1777 1282 1500 1494 2023 2480 2183 2095 1593 1194 1682 2031 2037 2195 2359 2404 2316 2337 2248 2365 2337 2432 2387 2449 2397 2378 2398 2447 2376 2355 2429 2071 1675 1388 1638 1746 2062 1885 1477 1354 841 918 861 834 1067 1023 903 819 529 986 1019 614 817 764 738 636 467
 1440 1602 1858 1710 1719 1730 1777 1936 1648 1412 1299 1151 1283 1589 1741 1582 1881 2017 1844 1354 1289 1726 1971 2181 2010 1645 1609 1082 1493 1893 2059 2124 2199 2337 2366 2368 2350 2409 2435 2432 2491 2447 2436 2436 2512 2769 2364 2175 2090 1884 1531 1679 1983 1855 1906 1761 1316 1047 828 1194 1068 1107 1185 1119 760 659 557 553 612 620 977 923 592 813 849
 1238 1431 1396 1517 1357 1679 1782 1930 1682 1506 1284 1180 1124 1396 1509 1435 1699 1892 1580 1412 1181 1429 1641 2018 1894 1525 1043 1368 1479 1809 2155 2108 2113 2192 2272 2455 2519 2473 2522 2469 2380 2394 2399 2434 2525 2565 2387 2137 2192 1939 1724 2175 2026 1816 1937 1564 1119 946 1038 1233 1007 938 1053 765 807 945 730 806 1032 597 658 1036 599 949 944
 906 1258 1074 1103 1137 1423 1614 1803 1902 1484 1393 1303 1015 1117 1255 1443 1634 1819 1619 1341 1110 1412 1731 1856 1911 1438 1163 1749 1538 2008 2247 2198 2369 2276 2240 2178 2486 2576 2488 2544 2340 2316 2399 2453 2440 2597 2574 2302 2139 2124 1772 2125 1861 1799 1536 1198 1101 1128 1077 1271 1109 952 976 937 1171 1082 1072 1163 1088 811 652 864 904 1071 1104
 772 853 904 868 1387 1258 1471 1862 1688 1430 1250 1290 1148 1091 1175 1285 1361 1719 1533 1306 1005 1288 1552 1516 1769 1219 1140 1602 1972 1847 2286 2257 2339 2548 2439 2387 2205 2288 2252 2314 2283 2430 2396 2381 2410 2464 2568 2268 2410 2220 1725 1952 2014 1822 1677 1251 1175 1653 1413 1308 1136 1339 1192 1241 1312 911 1130 839 798 505 776 1132 1050 1168 1204
 714 739 760 810 930 1107 1539 2028 1592 1270 1229 1050 1021 1071 1318 1054 1289 1528 1758 1372 1060 994 1101 1141 1417 1254 1072 1338 1721 2214 2259 2299 2353 2514 2663 2585 2506 2511 2444 2336 2365 2418 2368 2353 2407 2380 2409 2437 2308 2235 2008 2175 2007 1884 1839 1285 1473 1974 1816 1430 1453 1375 1184 1039 1114 693 816 696 686 632 864 1043 1192 1331 949
 576 624 662 821 954 1221 1404 1542 1442 1127 1195 1088 900 1131 1452 1126 1072 1417 1563 1527 1295 839 1078 947 1016 1047 1096 1800 2092 2314 2424 2363 2359 2400 2506 2630 2583 2643 2421 2421 2380 2326 2507 2377 2430 2425 2439 2484 2314 2151 1836 2173 2025 1916 1856 1501 1752 1850 1475 1798 1946 1374 1372 1293 767 698 776 694 611 978 1136 1113 1239 1170 834
 566 609 741 782 796 1020 1238 1414 1220 1009 1020 972 821 923 1075 1153 1113 1234 1182 1504 1136 801 1095 1379 1252 1564 1705 1779 2103 2280 2276 2414 2430 2463 2668 2581 2566 2524 2607 2648 2412 2413 2371 2430 2462 2497 2525 2590 2554 2430 1944 2299 2133 2003 1839 1226 1313 1402 1379 1506 1685 1562 1197 1108 732 744 1045 632 1060 965 902 1229 1253 1088 1021
 637 561 699 716 699 748 1054 1084 1061 904 890 909 869 849 946 1090 921 1335 1070 1408 1102 864 1234 1288 1465 1796 2068 1852 2197 2097 2167 2216 2315 2524 2643 2605 2619 2693 2828 2452 2419 2555 2454 2507 2682 2391 2405 2656 2858 2194 1972 2276 1828 1619 1586 1376 1155 1309 1486 1504 1172 1323 977 834 781 1105 882 910 889 796 923 1256 1397 1225 1110
 700 610 588 577 591 667 725 817 821 809 780 828 812 696 765 789 1029 1430 958 1262 1051 931 1049 1131 1328 1654 2079 2111 1980 2024 2147 2227 2324 2356 2435 2621 2763 2721 2812 2512 2457 2562 2600 2613 2491 2292 2334 2575 2503 2155 2286 2228 1830 1422 1335 1273 1188 1094 1349 1212 1030 961 973 718 1052 1332 973 1061 776 912 1127 1295 1460 1277 1134
 818 651 649 621 611 557 633 679 679 687 654 755 737 692 788 899 1187 1609 1179 986 816 919 1262 1100 1336 1825 2271 2132 2069 2109 2169 2285 2158 2215 2230 2618 2921 2867 2609 2488 2661 2724 2784 2344 2250 2212 2303 2434 2872 2409 2480 2210 1818 1532 1584 1512 1197 1297 992 1123 1107 832 993 803 929 1325 1091 1142 1037 858 974 1181 1382 1186 1074
 1079 753 767 768 726 682 589 571 604 592 710 818 670 692 771 822 1154 1407 1188 835 1065 1135 1223 1453 1414 1703 2210 2158 2211 2037 2066 2166 2105 2225 2312 2556 2724 2836 2648 2621 2729 2793 2483 2258 2192 2308 2373 2630 2863 2711 2464 2154 2024 1575 1810 1510 1469 1634 1393 1433 1287 1073 1278 1064 1132 1322 1336 1339 1305 837 903 1137 1250 1142 1064
 1325 952 902 887 837 768 714 631 566 578 641 773 729 667 777 789 974 1337 1349 971 958 1435 1366 1850 1415 1675 2089 2080 2203 2093 2108 2057 2138 2278 2330 2639 2771 2555 2388 2697 2846 2653 2309 2153 2183 2383 2479 2700 2830 2864 2677 2272 1951 1811 1823 1939 1740 1993 1477 1711 1181 1134 1520 1238 1372 1414 1534 1424 1132 1171 967 1314 1200 1024 814
 1613 1335 1293 1043 972 896 765 676 588 571 602 745 705 694 782 903 916 1170 1283 893 841 1147 1583 1641 1771 1779 2323 2192 2338 2285 2140 2156 2177 2292 2488 2471 2489 2384 2345 2733 2418 2379 2158 2151 2235 2526 2553 2756 2801 2720 2708 2586 1993 1969 2247 2006 2052 1745 1626 1350 1080 1325 1535 1678 1543 1417 1210 1086 964 1424 1082 1338 1233 1034 817
 1625 1794 1944 1712 1245 1020 855 792 732 652 568 691 754 692 762 901 1104 1062 1103 1066 772 1309 1379 1410 1746 2165 2338 2311 2470 2390 2256 2202 2185 2271 2230 2298 2355 2170 2380 2492 2223 2195 2124 2212 2480 2595 2596 2670 2702 2633 2602 2948 2675 2541 2504 2342 1876 1605 1291 1252 1232 1375 1701 1529 1459 1205 1160 1118 1323 1465 1195 1196 1224 1193 1240
 1850 1870 1934 2084 1972 1336 1016 916 809 728 557 618 708 645 745 986 1228 1096 1035 1067 805 1087 1535 1486 1921 2181 2409 2388 2184 2432 2261 2241 2179 2205 2163 2282 2170 2140 2285 2195 2116 1928 2108 2066 2189 2236 2261 2381 2432 2416 2580 3000 2321 2091 1968 1983 1772 1395 1386 1304 1402 1522 1738 1569 1444 1612 1568 1350 1566 1685 1667 1600 1362 1258 1186
 1934 1890 1979 2094 2006 1415 1109 1020 889 753 593 592 683 639 748 934 1311 1249 816 853 832 1251 1729 1834 1966 2251 2343 2217 2003 2086 2395 2307 2189 2081 2032 2240 1867 1772 1955 1979 2181 2187 2342 2263 2289 2373 2344 2356 2338 2389 2574 2808 2264 2134 2114 1752 1561 1657 1698 1570 1479 1830 1843 1807 1665 2027 1643 1581 1650 2053 1731 1567 1422 1319 1111
 1901 2044 2144 2355 1494 1369 1193 982 849 761 611 624 582 654 706 769 969 1324 840 752 936 1163 1498 1645 1732 2008 2263 1960 1827 1903 2184 2242 1993 1528 1388 1560 1334 1507 2191 2305 2212 2358 2574 2669 2508 2558 2651 2697 2436 2478 2583 2680 2241 1916 1774 1745 1770 1896 1976 1867 1847 1993 1960 1887 1940 2048 1939 1841 1860 2143 1775 1460 1565 1320 1061
